ply
format ascii 1.0
element vertex 235
property float x
property float y
property float z
property uchar red
property uchar green
property uchar blue
end_header
-1.2307118233498175 -0.016560622197656822 7.079905972218281 142 160 244
-1.2310261204304302 -0.015149180758664636 7.081995296831665 92 115 169
-1.2787045304926123 -0.0005846016080898533 7.0710865497479904 67 114 120
-1.1708436924651031 0.06826792865072114 7.1280370649033475 182 135 109
-1.1704963305073222 0.07033525775990945 7.1261393864206335 176 131 102
-1.1428489020941326 0.0871572396293064 7.145276394300496 156 93 48
-1.1432463064850886 0.08858395854768797 7.144026631567189 205 128 72
-1.137885964987067 0.15877658970735095 7.147734801960498 180 100 37
-1.1523696028485206 0.16446586009104683 7.137004206898289 204 142 91
-1.2165974918485898 -0.008507505036925381 7.0886909669289695 146 176 214
-1.2183842202342543 -0.006353624685819386 7.0838707124572355 141 171 209
-1.2161236243927545 -0.006432674876337901 7.086412259251328 144 174 212
-1.282226046464119 0.04197208403851192 7.073011321055669 72 93 112
-1.1527315888641372 0.04740433535437115 7.138952023135524 130 48 10
-1.1519968022367353 0.05113152901392168 7.138796086537573 128 49 8
-1.1573081149752968 0.05350123279651628 7.1370390114853866 163 84 51
-1.1747988420082947 0.0637188212479876 7.124214002714256 125 71 41
-1.176831184504378 0.06758642038884792 7.124530424879288 109 63 37
-1.1454238764710254 0.06904985149005821 7.14478274143767 142 88 52
-1.174817578528422 0.07152257129550167 7.126098405565117 117 72 43
-1.174817578528422 0.07152257129550167 7.126098405565117 117 72 43
-1.1698921622452458 0.07153287282478168 7.126299033335517 112 67 38
-1.179504186062292 0.08325846832330012 7.118842621069906 135 68 16
-1.1790810188902356 0.08463737933940157 7.120429414174238 181 124 81
-1.146902965648123 0.08590285415663472 7.14380545854868 157 89 41
-1.146902965648123 0.08590285415663472 7.14380545854868 157 89 41
-1.180286300531654 0.08867728068269941 7.122811468493463 188 131 91
-1.1481144700354458 0.08788148094967096 7.142819191734091 220 139 81
-1.1396674100108393 0.08806393033360715 7.148864442624908 221 140 85
-1.1494968014194769 0.15151081972489758 7.140571380485636 219 132 61
-1.2767823372160452 -0.0005478476568635676 7.071510800800065 94 112 126
-1.2704010978600846 0.004101912652165515 7.073117365720279 84 120 149
-1.2735586750052545 0.007381823029526384 7.072008858361313 107 117 126
-1.2737853664365169 0.010253099852894174 7.071846910108095 98 115 133
-1.1696990314950029 0.06541845085829828 7.1288694585057275 174 127 101
-1.1489272148818104 0.0698768600799098 7.141656038020507 241 157 95
-1.147918318735636 0.07184062441223664 7.141888118779411 150 92 55
-1.1392455971889301 0.07196429242670298 7.148565719018669 148 87 46
-1.175788749759684 0.07332439857773267 7.124987882550599 179 134 105
-1.1702519251700247 0.07331547396593086 7.1302476399841535 181 136 107
-1.14531690536349 0.0732467865185585 7.144887718709142 147 89 52
-1.1420332392332477 0.07319705394726966 7.147628373002766 153 88 56
-1.1724767219933931 0.07586012252100931 7.127010915659751 200 129 77
-1.170232319765342 0.08486208414381581 7.128160213764145 183 129 95
-1.148312027733335 0.08463971778930461 7.142927932579505 225 156 99
-1.1741201422114922 0.08690125518080605 7.1260427437379255 123 59 34
-1.1772906382123414 0.08838666284984725 7.124744987917491 121 62 20
-1.1772906382123414 0.08838666284984725 7.124744987917491 121 62 20
-1.1527618433428144 0.15840520437156907 7.1374830350029 178 65 0
-1.151418984333845 0.16271312042913438 7.138380978620848 167 88 32
-1.1466889187015903 0.17315885471170372 7.141464320180866 203 142 97
-1.2285032264032543 -0.014523270680429466 7.082362771811826 86 107 127
-1.2223787824388226 -0.012684894331985582 7.0846266910176565 139 165 200
-1.2242276707501625 -0.010539082959616013 7.0818817696435135 132 151 177
-1.2738904918569935 0.0005093763570939609 7.072323695656614 111 129 153
-1.258805490157817 0.0013215941539609956 7.07598469686953 64 94 120
-1.2614853723690902 0.0031483859337993816 7.0759685706113995 109 142 172
-1.2477786211397766 0.002278752879664496 7.079888807087057 92 114 138
-1.2746448737637326 0.017381466439324922 7.072286704231526 145 175 209
-1.2800366618459345 0.028394778447103163 7.071973311212641 64 83 98
-1.1792588741115586 0.06175154578809078 7.122281635123605 181 121 88
-1.1669541966002142 0.06194620858357562 7.130116030786853 182 127 83
-1.1486710691049964 0.06262027145308623 7.141149151051459 188 136 97
-1.1394204477103385 0.06295830053918651 7.149589242276604 219 155 117
-1.1394204477103385 0.06295830053918651 7.149589242276604 219 155 117
-1.1474476224800472 0.06537145482837409 7.141977134446038 139 69 20
-1.1727632341951442 0.0676940325757364 7.126557091378343 109 62 36
-1.1754641197003546 0.06930126402303859 7.126713605691828 178 132 106
-1.17089323943294 0.06927623428863168 7.128647097756714 174 127 101
-1.17089323943294 0.06927623428863168 7.128647097756714 174 127 101
-1.1786429953677178 0.075620380763459 7.1239711528523 193 119 83
-1.1786429953677178 0.075620380763459 7.1239711528523 193 119 83
-1.166764560311876 0.07566641040728952 7.130009471032496 188 133 97
-1.143527536394558 0.07558552315427959 7.146091964266647 216 150 102
-1.143527536394558 0.07558552315427959 7.146091964266647 216 150 102
-1.1628815010325961 0.07571066191272163 7.13241669258519 187 132 95
-1.1628815010325961 0.07571066191272163 7.13241669258519 187 132 95
-1.1593263693033795 0.07564581057179173 7.134764135038942 183 129 94
-1.1519573217891677 0.07578697438136156 7.140022706041342 219 156 103
-1.1481133716005179 0.07552740767936175 7.144207952209847 212 146 96
-1.1481133716005179 0.07552740767936175 7.144207952209847 212 146 96
-1.152437315740491 0.08808186523110274 7.140304315950377 202 141 94
-1.162898919677953 0.08866776381182354 7.133746332760508 150 84 34
-1.1485374827829307 0.16180988563789944 7.139163397543611 171 96 39
-1.1485374827829307 0.16180988563789944 7.139163397543611 171 96 39
-1.1530491562882164 0.1636137140183648 7.135664752969134 228 136 71
-1.1475888548227697 0.16695525463390326 7.14110079961673 204 138 86
-1.1365744070913852 0.17070114310344894 7.1479620910679795 219 148 94
-1.2191200375836384 -0.023383623433394066 7.0824154418392995 146 163 183
-1.2301250378671864 -0.020442208738808757 7.080966128718315 126 144 228
-1.269963173138188 -0.012315151111871779 7.073306995787433 182 202 253
-1.269963173138188 -0.012315151111871779 7.073306995787433 182 202 253
-1.2148608091090012 -0.014836237053400078 7.085050114584204 74 101 118
-1.241653629414701 -0.010434886088077258 7.082172990598077 141 170 200
-1.2790532319059875 -0.001863471125594627 7.068955008526874 146 181 216
-1.2754962184878205 -0.002289052612127161 7.070604328178233 171 199 238
-1.2240869870315738 -0.006477189777868587 7.0826328180228675 139 157 181
-1.2696852522253421 2.023693085653755e-05 7.073316793744984 115 139 163
-1.2547699844807918 0.0009158532796880343 7.077439392506865 64 94 120
-1.2800782193724412 0.004656106346363625 7.069961394015405 133 157 181
-1.277469031938032 0.004487166806277587 7.071731733550712 57 82 104
-1.2242495289383402 -0.0002838422684520413 7.084487236748103 138 154 180
-1.2712041485042633 0.00678330610899687 7.073299759593553 56 69 78
-1.2848926232391604 0.03235870270477099 7.07112264310178 45 38 45
-1.2824529056416234 0.04026629374620633 7.072058197165188 146 180 215
-1.3026319714454482 0.04604668010348774 7.060291652101184 130 96 61
-1.1622296827604355 0.0625153105284528 7.132863260294756 181 128 96
-1.1647174282181578 0.06443287935451412 7.130075764140834 117 51 9
-1.1555273243017345 0.06485525256773615 7.137729887929522 130 52 13
-1.1555273243017345 0.06485525256773615 7.137729887929522 130 52 13
-1.1601465004217903 0.0651151110722209 7.134244672792849 133 60 15
-1.1601465004217903 0.0651151110722209 7.134244672792849 133 60 15
-1.1788193315566373 0.06596373580440285 7.123546713527025 175 126 93
-1.1675205999728797 0.06600472112808177 7.130576679481408 175 125 100
-1.1393780784225649 0.06584624921809823 7.147220251793202 165 74 30
-1.1393780784225649 0.06584624921809823 7.147220251793202 165 74 30
-1.1400531339716602 0.06962728019827481 7.152127371649296 220 153 116
-1.1435766408493355 0.07104716566917349 7.145742694686122 208 169 128
-1.1597977571062907 0.0722773023227718 7.134078686260467 142 59 27
-1.1597977571062907 0.0722773023227718 7.134078686260467 142 59 27
-1.1392208973120166 0.0752484665943086 7.148151376686143 216 152 104
-1.1756892977156739 0.07581129090720766 7.126118095313587 135 64 12
-1.1698417098775566 0.07588509279365614 7.129393157926607 136 60 24
-1.291363789757845 0.08518535449183606 7.073579799628492 182 109 96
-1.1502775265074394 0.08665666534805568 7.141838370317776 165 83 33
-1.3029191877294004 0.10372249631032268 7.079047746841475 188 112 80
-1.1514511201113935 0.15910194789556914 7.141421345985044 206 131 74
-1.1393667878949518 0.16850581424165198 7.14559032559381 189 119 68
-1.1550374755526451 0.1707316690189131 7.136074875542483 168 86 39
-1.1512747692820156 0.17011368811333347 7.138935157635064 169 87 36
-1.1494371035409636 0.1751761025682667 7.139122006582408 166 99 47
-1.2694945800669881 -0.015040454590775394 7.071990820553175 230 232 255
-1.2393196461084817 -0.008214615129763028 7.08212842829267 68 100 129
-1.2647408734278083 -0.0004074447826864537 7.073805159531327 132 154 177
-1.2577129024821587 -0.0012016137756519774 7.076061029323508 157 187 213
-1.2773147052326892 0.0229884565932989 7.073437694534984 56 77 94
-1.2810218000578992 0.03158001658607883 7.071696165501107 153 191 227
-1.323241325270214 0.03866420704343146 7.056039096539821 194 156 145
-1.323241325270214 0.03866420704343146 7.056039096539821 194 156 145
-1.3138444633382151 0.038462883490226224 7.059542568414362 131 96 64
-1.3166762956651656 0.044043052173270925 7.055217714464794 134 96 59
-1.3022632022213771 0.06351712257405065 7.060364861002621 127 91 65
-1.3041464087503896 0.07033503571807598 7.065010401722584 132 93 64
-1.1731714040656016 0.06157751253133316 7.126358954485 167 128 85
-1.1535884533325378 0.06218940160960569 7.139279509093988 181 130 101
-1.1578847786908564 0.062467698327465085 7.13518460784489 175 135 115
-1.1462351809841764 0.06252545765959759 7.142145360905779 196 144 105
-1.3061373528449505 0.07908538448918388 7.067814290706942 148 75 45
-1.1727485720121709 0.07412325302002624 7.12734150064296 183 138 109
-1.2238109250450324 0.0846624478421525 7.106381540477385 54 58 0
-1.2238109250450324 0.0846624478421525 7.106381540477385 54 58 0
-1.2999715442571402 0.09536618773902567 7.072570397253492 233 112 33
-1.1410388150651973 0.08617494399555728 7.148644930819053 211 128 86
-1.30600005887241 0.10606635322825136 7.076868878601571 193 131 108
-1.158486342593173 0.12399965589502054 7.134801268271324 191 112 45
-1.1470864003420507 0.16994452835114757 7.141211033095985 173 86 19
-1.2326196344286018 -0.02972781242242321 7.079322656231386 140 103 59
-1.2625295558307847 -0.021417019694506396 7.073314257049605 200 219 252
-1.2766638847182934 -0.014364366287754159 7.070035717017796 210 223 255
-1.2626018682801194 -0.015487486745769427 7.0729635063077 224 243 248
-1.2735954346792984 -0.011871693739215067 7.073059280152753 182 201 252
-1.267207810937425 -0.012624870470607593 7.072355236128444 182 203 248
-1.2449390316040156 -0.011958966974617256 7.079319275243732 71 126 141
-1.2164009929332604 -0.011423045982793645 7.085280625208546 132 164 202
-1.24484591185519 -0.008520816204174237 7.079029591891377 83 114 157
-1.2608493872258688 -0.004067375413410242 7.073797260285844 85 114 134
-1.2818934444261236 0.0008211151792775623 7.070129817048644 47 48 52
-1.2258796293168064 -0.0037278391994809215 7.083793677112881 59 75 100
-1.2496298886220758 -0.0017768416162414133 7.078697169274932 164 191 218
-1.2795117376632412 0.00776698252363682 7.0710793638174305 140 170 198
-1.2806812073588456 0.02549476298265555 7.071798398402901 130 162 187
-1.2839892619177262 0.02889625869171481 7.071055336436264 32 39 41
-1.2878631735640358 0.06611771507215813 7.07356176100673 60 59 56
-1.1495574180110872 0.06595195685902534 7.140762941229643 145 63 7
-1.3109140730164714 0.08411856659482554 7.064602416388841 217 144 138
-1.3185669252395427 0.08833899462186796 7.067460969342792 190 107 103
-1.3090699162294552 0.08858444124935638 7.063687892898438 187 118 111
-1.1616955747976352 0.12554994924050317 7.1321717654516625 167 62 7
-1.160681644874749 0.13279190607227365 7.131385996289622 193 95 6
-1.1388375468948586 0.1608520726675646 7.1469895353593405 181 101 38
-1.1442202207561791 0.1616605758958843 7.143342939317693 168 90 28
-1.1442202207561791 0.1616605758958843 7.143342939317693 168 90 28
-1.3137190728700867 -0.030068578592907944 7.056119893515155 140 102 65
-1.2769650602980391 -0.023350323196230514 7.0679285776954055 42 38 55
-1.2758244825108898 -0.019657318215265847 7.069643810067858 180 204 255
-1.2354749995337946 -0.013913165069516053 7.080825395783704 65 96 116
-1.2766663427404694 -0.008247512000170036 7.069429227886662 219 246 255
-1.2498758154132001 -0.009040028204963038 7.076659965972828 186 206 255
-1.2699042025230536 -0.003271457758059159 7.071578637915285 79 108 138
-1.236866931317425 -0.004750033206363236 7.081825956253065 152 186 214
-1.236866931317425 -0.004750033206363236 7.081825956253065 152 186 214
-1.2440493515864477 -0.00021040080442384992 7.080864044277264 64 93 119
-1.265361356490993 0.0029390415583782775 7.074492574855639 66 87 106
-1.268119983904534 0.009485442794895098 7.074329773535425 186 208 185
-1.2630117574342403 0.01075226338404442 7.076795184678324 61 73 89
-1.2628910574308112 0.019435629214847705 7.076479398057257 58 71 88
-1.2510726439399864 0.019491290119246635 7.080367034322158 59 71 87
-1.3332309616036329 0.03454276016962317 7.051558731888499 138 100 63
-1.32805007551822 0.09541755299949393 7.071238495940709 231 194 175
-1.3360031007320785 0.09739520402343016 7.069526865230757 195 157 136
-1.1791536974250678 0.08633733683409242 7.12382826376971 127 78 43
-1.144972085662949 0.08610405565649622 7.141490638805364 205 146 104
-1.3325148197610144 0.11035057554366762 7.0739462766617205 178 137 115
-1.3293821264112449 0.11646017897986444 7.070649064015107 111 60 33
-1.1917208618607125 0.15040554285363192 7.118378046186225 194 94 8
-1.1917208618607125 0.15040554285363192 7.118378046186225 194 94 8
-1.1533017262829126 0.1663479340912655 7.134006250374083 197 135 84
-1.1429909152894262 0.1672586621527411 7.145127197163961 199 147 92
-1.2258678476707745 -0.01778896636181968 7.082409580499983 244 247 240
-1.2258678476707745 -0.01778896636181968 7.082409580499983 244 247 240
-1.2741277309370325 0.01256758738695303 7.072097871759831 94 118 144
-1.2791026220496124 0.018219257337027762 7.071730308938079 146 187 219
-1.2688616411456743 0.023947205644895636 7.075417275360066 155 202 237
-1.2799549342737102 0.03525920618897373 7.073191247933202 148 186 222
-1.3114762653276033 0.07806694912632471 7.061114093889769 201 70 8
-1.1687849168839628 0.07974274300515001 7.128658241382655 136 66 0
-1.1636772047669786 0.1750901269932757 7.127590552615282 127 68 8
-1.226956305105864 -0.02544770144466163 7.081906605110283 57 60 69
-1.3107055383475479 0.05313007161459346 7.058586634564725 122 86 54
-1.3244578307260733 0.0722631201296303 7.055225259020389 117 79 56
-1.319267320655934 0.07743921165146844 7.058659214779235 224 218 222
-1.319267320655934 0.07743921165146844 7.058659214779235 224 218 222
-1.323682198092393 0.10147699514728367 7.068637621308423 199 44 0
-1.2372584028876008 -0.01984391077800227 7.077529049561318 177 198 255
-1.258228995964368 0.007850109092060326 7.075907510421712 62 71 86
-1.258228995964368 0.007850109092060326 7.075907510421712 62 71 86
-1.3236881480649483 0.04754274274458055 7.053953064485203 132 90 48
-1.2691584468676402 0.0010328814075315496 7.071403199282957 105 129 153
-1.173779656699108 0.06729328345108837 7.127045333388632 118 72 46
-1.30121848657256 0.08684259439635703 7.069884522911195 203 144 128
-1.3255949607827817 0.08544515107130385 7.061141314518262 229 214 211
-1.2663997292834877 -0.013011854801296449 7.072853032954731 182 203 248
-1.2663997292834877 -0.013011854801296449 7.072853032954731 182 203 248
-1.2827986697522358 0.004235063606056237 7.069841096606098 58 54 52
-1.1885747877289523 0.1617803224779146 7.116593865809946 198 89 6
