# 3D point list with one line of data per point:
#   POINT3D_ID, X, Y, Z, R, G, B, ERROR, TRACK[] as (IMAGE_ID, POINT2D_IDX)
# Number of points: 235, mean track length: 2
1 -1.2307118233498175 -0.016560622197656822 7.0799059722182811 142 160 244 0.6468703713332925 6 373 40 5
2 -1.2310261204304302 -0.015149180758664636 7.0819952968316651 92 115 169 0.30477784995109902 6 4 40 222
3 -1.2787045304926123 -0.00058460160808985334 7.0710865497479904 67 114 120 0.26370558599759641 6 383 40 236
4 -1.1708436924651031 0.068267928650721135 7.1280370649033475 182 135 109 0.64365212178762277 6 433 40 297
5 -1.1704963305073222 0.070335257759909453 7.1261393864206335 176 131 102 0.1824274557586566 6 249 40 299
6 -1.1428489020941326 0.087157239629306396 7.1452763943004962 156 93 48 0.89416495877445501 6 470 40 319
7 -1.1432463064850886 0.088583958547687969 7.144026631567189 205 128 72 0.49859563419454306 6 301 40 325
8 -1.137885964987067 0.15877658970735095 7.1477348019604978 180 100 37 0.789464516607425 6 487 40 340
9 -1.1523696028485206 0.16446586009104683 7.1370042068982888 204 142 91 0.027194683474482385 6 491 40 346
10 -1.2165974918485898 -0.0085075050369253814 7.0886909669289695 146 176 214 0.41003978908162764 6 189 40 412
11 -1.2183842202342543 -0.0063536246858193861 7.0838707124572355 141 171 209 0.64516380098304005 6 385 40 416
12 -1.2161236243927545 -0.0064326748763379009 7.0864122592513281 144 174 212 0.30752028227223815 6 386 40 417
13 -1.2822260464641191 0.041972084038511923 7.0730113210556693 72 93 112 0.016336475441787922 6 408 40 470
14 -1.1527315888641372 0.047404335354371149 7.1389520231355243 130 48 10 0.057716015833101708 6 560 40 477
15 -1.1519968022367353 0.051131529013921678 7.1387960865375728 128 49 8 0.49529153121477809 6 709 40 482
16 -1.1573081149752968 0.053501232796516279 7.1370390114853866 163 84 51 0.10077270335325086 6 242 40 484
17 -1.1747988420082947 0.063718821247987598 7.1242140027142558 125 71 41 0.24631866816428988 6 427 40 492
18 -1.176831184504378 0.06758642038884792 7.1245304248792882 109 63 37 0.27569471135000362 6 576 40 498
19 -1.1454238764710254 0.069049851490058212 7.1447827414376697 142 88 52 0.29292439274559545 6 583 40 503
20 -1.1748175785284221 0.071522571295501672 7.1260984055651173 117 72 43 0.38918846341028557 6 436 40 506
21 -1.1748175785284221 0.071522571295501672 7.1260984055651173 117 72 43 0.38918846341028557 6 435 40 507
22 -1.1698921622452458 0.071532872824781685 7.126299033335517 112 67 38 0.18710944970421975 6 437 40 508
23 -1.1795041860622919 0.083258468323300125 7.1188426210699056 135 68 16 0.35710615420059361 6 262 40 515
25 -1.1790810188902356 0.084637379339401575 7.1204294141742377 181 124 81 0.1252185517773077 6 597 40 520
26 -1.1469029656481231 0.08590285415663472 7.1438054585486803 157 89 41 0.79999445792041346 6 612 40 526
27 -1.1469029656481231 0.08590285415663472 7.1438054585486803 157 89 41 0.79999445792041346 6 611 40 527
28 -1.180286300531654 0.088677280682699408 7.1228114684934631 188 131 91 0.40980950654808501 6 460 40 529
29 -1.1481144700354458 0.087881480949670965 7.1428191917340911 220 139 81 0.82302218905153901 6 614 40 531
30 -1.1396674100108393 0.088063930333607154 7.1488644426249079 221 140 85 1.2107520326163004 6 477 40 532
31 -1.1494968014194769 0.15151081972489758 7.1405713804856363 219 132 61 2.6293118308631858 6 627 40 556
32 -1.2767823372160452 -0.00054784765686356762 7.0715108008000653 94 112 126 0.60322679366117204 6 529 40 655
33 -1.2704010978600846 0.0041019126521655153 7.0731173657202788 84 120 149 0.75441760951309567 6 682 40 658
34 -1.2735586750052545 0.007381823029526384 7.072008858361313 107 117 126 0.32925786630256249 6 688 40 665
35 -1.2737853664365169 0.010253099852894174 7.0718469101080954 98 115 133 1.1410482407901923 6 538 40 666
36 -1.1696990314950029 0.065418450858298283 7.1288694585057275 174 127 101 0.24427125432722316 6 573 40 701
37 -1.1489272148818104 0.0698768600799098 7.141656038020507 241 157 95 0.14640402529499619 6 736 40 707
38 -1.1479183187356361 0.071840624412236639 7.141888118779411 150 92 55 0.5469261109343404 6 739 40 712
39 -1.1392455971889301 0.071964292426702978 7.1485657190186691 148 87 46 0.41352643374140829 6 591 40 713
40 -1.1757887497596839 0.073324398577732666 7.1249878825505988 179 134 105 0.13802537026900433 6 588 40 714
41 -1.1702519251700247 0.073315473965930855 7.1302476399841535 181 136 107 0.11569934656232148 6 590 40 715
42 -1.14531690536349 0.073246786518558496 7.1448877187091417 147 89 52 0.40596488543094872 6 742 40 716
43 -1.1420332392332477 0.073197053947269664 7.1476283730027657 153 88 56 0.17014559611726696 6 743 40 717
44 -1.1724767219933931 0.075860122521009307 7.127010915659751 200 129 77 0.26401798189380343 6 744 40 723
45 -1.1702323197653419 0.084862084143815811 7.1281602137641453 183 129 95 0.27106255739780372 6 600 40 733
46 -1.148312027733335 0.084639717789304611 7.1429279325795054 225 156 99 0.43872559115659393 6 758 40 736
47 -1.1741201422114922 0.086901255180806047 7.1260427437379255 123 59 34 0.47192234237412467 6 602 40 739
48 -1.1772906382123414 0.088386662849847253 7.1247449879174907 121 62 20 0.63815745500772803 6 607 40 742
49 -1.1772906382123414 0.088386662849847253 7.1247449879174907 121 62 20 0.63815745500772803 6 608 40 743
51 -1.1527618433428144 0.15840520437156907 7.1374830350028997 178 65 0 0.47283760412417725 6 628 40 763
52 -1.1514189843338449 0.16271312042913438 7.1383809786208481 167 88 32 0.66668069989516809 6 630 40 765
53 -1.1466889187015903 0.17315885471170372 7.1414643201808659 203 142 97 0.26864656327353265 6 780 40 769
54 -1.2285032264032543 -0.014523270680429466 7.0823627718118258 86 107 127 0.031178837218863723 6 525 40 816
55 -1.2223787824388226 -0.012684894331985582 7.0846266910176565 139 165 200 0.26450330470826677 6 667 40 819
56 -1.2242276707501625 -0.010539082959616013 7.0818817696435135 132 151 177 0.60428060727960031 6 670 40 821
57 -1.2738904918569935 0.00050937635709396092 7.072323695656614 111 129 153 0.56206497160415425 6 530 40 823
58 -1.258805490157817 0.0013215941539609956 7.0759846968695301 64 94 120 0.054891943179135191 6 678 40 828
59 -1.2614853723690902 0.0031483859337993816 7.0759685706113995 109 142 172 0.21404340480681175 6 683 40 829
60 -1.2477786211397766 0.002278752879664496 7.0798888070870571 92 114 138 0.38587922896674087 6 687 40 831
61 -1.2746448737637326 0.017381466439324922 7.0722867042315256 145 175 209 1.0699257103741899 6 823 40 838
62 -1.2800366618459345 0.028394778447103163 7.0719733112126413 64 83 98 0.4862911014722443 6 692 40 841
63 -1.1792588741115586 0.061751545788090778 7.1222816351236053 181 121 88 0.23913770742691282 6 717 40 855
64 -1.1669541966002142 0.061946208583575621 7.1301160307868532 182 127 83 0.25851127219770054 6 720 40 856
65 -1.1486710691049964 0.062620271453086226 7.1411491510514589 188 136 97 0.1301574215456904 6 721 40 858
66 -1.1394204477103385 0.06295830053918651 7.1495892422766039 219 155 117 0.26660626989775249 6 724 40 860
67 -1.1394204477103385 0.06295830053918651 7.1495892422766039 219 155 117 0.26660626989775249 6 725 40 861
68 -1.1474476224800472 0.065371454828374087 7.1419771344460381 139 69 20 0.19371393165118625 6 857 40 863
69 -1.1727632341951442 0.067694032575736404 7.1265570913783431 109 62 36 0.29384087986966606 6 578 40 866
70 -1.1754641197003546 0.069301264023038586 7.1267136056918279 178 132 106 0.4184005938169747 6 730 40 869
71 -1.1708932394329401 0.06927623428863168 7.1286470977567138 174 127 101 0.2012164195743911 6 732 40 870
72 -1.1708932394329401 0.06927623428863168 7.1286470977567138 174 127 101 0.2012164195743911 6 733 40 871
73 -1.1786429953677178 0.075620380763459005 7.1239711528522998 193 119 83 0.072568917025167948 6 740 40 876
74 -1.1786429953677178 0.075620380763459005 7.1239711528522998 193 119 83 0.072568917025167948 6 741 40 877
75 -1.1667645603118759 0.075666410407289525 7.1300094710324959 188 133 97 0.17540002165965518 6 746 40 878
76 -1.1435275363945581 0.075585523154279591 7.1460919642666472 216 150 102 0.46004130498102902 6 874 40 879
77 -1.1435275363945581 0.075585523154279591 7.1460919642666472 216 150 102 0.46004130498102902 6 875 40 880
78 -1.1628815010325961 0.075710661912721633 7.1324166925851902 187 132 95 0.12494208648038894 6 748 40 881
79 -1.1628815010325961 0.075710661912721633 7.1324166925851902 187 132 95 0.12494208648038894 6 749 40 882
80 -1.1593263693033795 0.075645810571791733 7.1347641350389424 183 129 94 0.020760070446893916 6 750 40 883
81 -1.1519573217891677 0.07578697438136156 7.1400227060413419 219 156 103 0.23701272646287119 6 751 40 886
82 -1.1481133716005179 0.075527407679361752 7.1442079522098467 212 146 96 0.80457755221072413 6 870 40 887
83 -1.1481133716005179 0.075527407679361752 7.1442079522098467 212 146 96 0.80457755221072413 6 871 40 888
84 -1.152437315740491 0.088081865231102743 7.1403043159503774 202 141 94 0.53568804105996626 6 761 40 893
85 -1.1628989196779529 0.088667763811823536 7.1337463327605084 150 84 34 0.40218515747330674 6 760 40 895
86 -1.1485374827829307 0.16180988563789944 7.1391633975436113 171 96 39 0.82841669983845212 6 773 40 905
87 -1.1485374827829307 0.16180988563789944 7.1391633975436113 171 96 39 0.82841669983845212 6 774 40 906
88 -1.1530491562882164 0.1636137140183648 7.1356647529691344 228 136 71 0.70811072341940129 6 899 40 907
89 -1.1475888548227697 0.16695525463390326 7.1411007996167299 204 138 86 0.25394325064543366 6 776 40 909
90 -1.1365744070913852 0.17070114310344894 7.1479620910679795 219 148 94 1.0338096712418983 6 781 40 912
93 -1.2191200375836384 -0.023383623433394066 7.0824154418392995 146 163 183 0.75695663716411299 6 915 40 930
94 -1.2301250378671864 -0.020442208738808757 7.0809661287183152 126 144 228 0.9167783246463419 6 793 40 931
95 -1.269963173138188 -0.012315151111871779 7.0733069957874326 182 202 253 0.68422784505230927 6 920 40 934
96 -1.269963173138188 -0.012315151111871779 7.0733069957874326 182 202 253 0.68422784505230927 6 919 40 935
97 -1.2148608091090012 -0.014836237053400078 7.0850501145842042 74 101 118 0.66567085803910786 6 795 40 936
98 -1.2416536294147009 -0.010434886088077258 7.0821729905980773 141 170 200 0.41547978654143036 6 797 40 940
99 -1.2790532319059875 -0.0018634711255946269 7.0689550085268742 146 181 216 0.37364776473459899 6 798 40 944
100 -1.2754962184878205 -0.0022890526121271612 7.0706043281782334 171 199 238 0.48723095270790723 6 799 40 945
101 -1.2240869870315738 -0.0064771897778685868 7.0826328180228675 139 157 181 0.39199969558797421 6 673 40 947
102 -1.2696852522253421 2.0236930856537549e-05 7.0733167937449837 115 139 163 0.17144929521330607 6 675 40 949
103 -1.2547699844807918 0.00091585327968803434 7.0774393925068653 64 94 120 0.30116633063753173 6 803 40 950
104 -1.2800782193724412 0.0046561063463636254 7.0699613940154054 133 157 181 0.68482917124183329 6 802 40 952
105 -1.277469031938032 0.0044871668062775871 7.0717317335507124 57 82 104 0.085953681119444347 6 804 40 953
106 -1.2242495289383402 -0.00028384226845204127 7.0844872367481031 138 154 180 0.033477608196616611 6 806 40 954
107 -1.2712041485042633 0.0067833061089968699 7.0732997595935529 56 69 78 0.52371836557637097 6 808 40 956
108 -1.2848926232391604 0.032358702704770988 7.0711226431017797 45 38 45 0.061094669167836582 6 832 40 966
109 -1.2824529056416234 0.040266293746206328 7.0720581971651884 146 180 215 0.092100509836817612 6 837 40 971
110 -1.3026319714454482 0.046046680103487739 7.060291652101184 130 96 61 0.608631566248933 6 953 40 974
111 -1.1622296827604355 0.0625153105284528 7.1328632602947559 181 128 96 0.32443096094143864 6 962 40 981
112 -1.1647174282181578 0.064432879354514125 7.1300757641408339 117 51 9 0.23220595585074055 6 968 40 983
113 -1.1555273243017345 0.064855252567736152 7.1377298879295221 130 52 13 0.036455893886885048 6 854 40 984
114 -1.1555273243017345 0.064855252567736152 7.1377298879295221 130 52 13 0.036455893886885048 6 855 40 985
115 -1.1601465004217903 0.065115111072220899 7.1342446727928488 133 60 15 0.52615707223803709 6 852 40 986
116 -1.1601465004217903 0.065115111072220899 7.1342446727928488 133 60 15 0.52615707223803709 6 853 40 987
117 -1.1788193315566373 0.065963735804402845 7.1235467135270252 175 126 93 0.08007678000104565 6 856 40 988
118 -1.1675205999728797 0.06600472112808177 7.1305766794814076 175 125 100 0.10141719624764775 6 727 40 989
119 -1.1393780784225649 0.06584624921809823 7.1472202517932022 165 74 30 0.22627200517310142 6 860 40 990
120 -1.1393780784225649 0.06584624921809823 7.1472202517932022 165 74 30 0.22627200517310142 6 859 40 991
121 -1.1400531339716602 0.069627280198274813 7.1521273716492964 220 153 116 0.26366379889860447 6 863 40 992
122 -1.1435766408493355 0.07104716566917349 7.1457426946861222 208 169 128 0.63542441105201763 6 977 40 994
123 -1.1597977571062907 0.072277302322771797 7.1340786862604668 142 59 27 0.41867159100242479 6 975 40 997
124 -1.1597977571062907 0.072277302322771797 7.1340786862604668 142 59 27 0.41867159100242479 6 976 40 998
125 -1.1392208973120166 0.075248466594308602 7.1481513766861431 216 152 104 0.18413055546017335 6 872 40 999
126 -1.1756892977156739 0.07581129090720766 7.1261180953135872 135 64 12 0.33629491982839071 6 865 40 1000
127 -1.1698417098775566 0.075885092793656142 7.1293931579266072 136 60 24 0.36119983550560286 6 868 40 1002
128 -1.2913637897578449 0.085185354491836063 7.0735797996284919 182 109 96 0.10821739175673414 6 974 40 1003
129 -1.1502775265074394 0.086656665348055675 7.1418383703177764 165 83 33 0.58505792683047975 6 886 40 1007
130 -1.3029191877294004 0.10372249631032268 7.079047746841475 188 112 80 0.25680153557352825 6 888 40 1012
131 -1.1514511201113935 0.15910194789556914 7.1414213459850444 206 131 74 0.84131948311192972 6 1002 40 1029
132 -1.1393667878949518 0.16850581424165198 7.14559032559381 189 119 68 0.81335506280559655 6 908 40 1031
133 -1.1550374755526451 0.1707316690189131 7.1360748755424828 168 86 39 0.48279802383683573 6 1008 40 1032
134 -1.1512747692820156 0.17011368811333347 7.1389351576350641 169 87 36 0.76808425438400185 6 907 40 1033
135 -1.1494371035409636 0.17517610256826671 7.1391220065824079 166 99 47 0.41944423200345249 6 1012 40 1034
138 -1.2694945800669881 -0.015040454590775394 7.0719908205531752 230 232 255 0.2216031335148175 6 916 40 1049
139 -1.2393196461084817 -0.0082146151297630282 7.0821284282926698 68 100 129 0.12554631213645251 6 929 40 1052
140 -1.2647408734278083 -0.0004074447826864537 7.0738051595313269 132 154 177 0.13120910188503687 6 800 40 1058
141 -1.2577129024821587 -0.0012016137756519774 7.0760610293235082 157 187 213 0.22405066703424717 6 931 40 1059
142 -1.2773147052326892 0.0229884565932989 7.0734376945349844 56 77 94 0.48267007508309112 6 942 40 1065
143 -1.2810218000578992 0.031580016586078827 7.0716961655011072 153 191 227 0.19649266493055262 6 945 40 1071
144 -1.323241325270214 0.038664207043431459 7.0560390965398208 194 156 145 0.027499741642546635 6 944 40 1073
145 -1.323241325270214 0.038664207043431459 7.0560390965398208 194 156 145 0.027499741642546635 6 943 40 1074
146 -1.3138444633382151 0.038462883490226224 7.0595425684143622 131 96 64 0.74990797255890151 6 946 40 1075
147 -1.3166762956651656 0.044043052173270925 7.0552177144647938 134 96 59 0.61070091219643741 6 835 40 1081
148 -1.3022632022213771 0.06351712257405065 7.0603648610026211 127 91 65 0.468332397966019 6 958 40 1098
149 -1.3041464087503896 0.070335035718075978 7.0650104017225841 132 93 64 0.018474293876506773 6 960 40 1100
150 -1.1731714040656016 0.061577512531333159 7.1263589544850001 167 128 85 0.10729620217376112 6 961 40 1101
151 -1.1535884533325378 0.062189401609605691 7.1392795090939876 181 130 101 0.020368508423387766 6 963 40 1102
152 -1.1578847786908564 0.062467698327465085 7.1351846078448897 175 135 115 0.023844099725102035 6 966 40 1103
153 -1.1462351809841764 0.062525457659597591 7.1421453609057792 196 144 105 0.40198931780903124 6 967 40 1104
154 -1.3061373528449505 0.079085384489183883 7.0678142907069423 148 75 45 0.30107346388776934 6 969 40 1110
155 -1.1727485720121709 0.074123253020026245 7.1273415006429603 183 138 109 0.050693655051742476 6 980 40 1115
156 -1.2238109250450324 0.084662447842152502 7.1063815404773854 54 58 0 1.8756424718342675 6 984 40 1120
157 -1.2238109250450324 0.084662447842152502 7.1063815404773854 54 58 0 1.8756424718342675 6 983 40 1121
158 -1.2999715442571402 0.095366187739025665 7.0725703972534921 233 112 33 1.0988916026337712 6 1066 40 1123
159 -1.1410388150651973 0.086174943995557279 7.1486449308190529 211 128 86 0.37200210880329176 6 1068 40 1126
160 -1.3060000588724101 0.10606635322825136 7.0768688786015712 193 131 108 0.84709422713820415 6 991 40 1131
161 -1.1584863425931731 0.12399965589502054 7.1348012682713238 191 112 45 1.228560102069447 6 1000 40 1138
162 -1.1470864003420507 0.16994452835114757 7.1412110330959848 173 86 19 0.11242183978535503 6 1009 40 1146
165 -1.2326196344286018 -0.02972781242242321 7.079322656231386 140 103 59 1.2827893577086811 6 1020 40 1159
166 -1.2625295558307847 -0.021417019694506396 7.0733142570496046 200 219 252 0.28566103979754143 6 1022 40 1160
167 -1.2766638847182934 -0.014364366287754159 7.0700357170177961 210 223 255 0.76116755687752868 6 1023 40 1161
168 -1.2626018682801194 -0.015487486745769427 7.0729635063077003 224 243 248 0.202704795345997 6 917 40 1162
169 -1.2735954346792984 -0.011871693739215067 7.0730592801527532 182 201 252 0.99913363507657316 6 1024 40 1163
170 -1.267207810937425 -0.012624870470607593 7.0723552361284439 182 203 248 0.25068824084168551 6 1025 40 1164
171 -1.2449390316040156 -0.011958966974617256 7.0793192752437317 71 126 141 0.12674162901214742 6 924 40 1165
172 -1.2164009929332604 -0.011423045982793645 7.0852806252085463 132 164 202 0.54157243976924474 6 1026 40 1166
173 -1.24484591185519 -0.008520816204174237 7.079029591891377 83 114 157 0.97263808346302949 6 1027 40 1167
174 -1.2608493872258688 -0.0040673754134102416 7.0737972602858443 85 114 134 0.042275792968411524 6 1028 40 1169
175 -1.2818934444261236 0.00082111517927756228 7.0701298170486444 47 48 52 0.13432222057843585 6 1030 40 1170
176 -1.2258796293168064 -0.0037278391994809215 7.0837936771128813 59 75 100 0.5064466287687539 6 1031 40 1171
177 -1.2496298886220758 -0.0017768416162414133 7.0786971692749319 164 191 218 0.24896336952076603 6 935 40 1172
178 -1.2795117376632412 0.0077669825236368201 7.0710793638174305 140 170 198 0.026710693406376048 6 1036 40 1176
179 -1.2806812073588456 0.025494762982655551 7.0717983984029011 130 162 187 0.47243686037380339 6 1046 40 1182
180 -1.2839892619177262 0.028896258691714811 7.071055336436264 32 39 41 0.15989142026768721 6 1048 40 1185
181 -1.2878631735640358 0.066117715072158134 7.0735617610067303 60 59 56 1.7181928176697077 6 959 40 1192
182 -1.1495574180110872 0.065951956859025343 7.1407629412296432 145 63 7 0.18700939989749138 6 1057 40 1195
183 -1.3109140730164714 0.084118566594825542 7.0646024163888406 217 144 138 0.52003615324633212 6 1059 40 1196
184 -1.3185669252395427 0.088338994621867964 7.0674609693427923 190 107 103 0.44059789910096681 6 1060 40 1197
185 -1.3090699162294552 0.088584441249356383 7.0636878928984377 187 118 111 0.76105555440863404 6 1061 40 1198
186 -1.1616955747976352 0.12554994924050317 7.1321717654516625 167 62 7 0.32178334556411914 6 1128 40 1203
187 -1.160681644874749 0.13279190607227365 7.1313859962896222 193 95 6 0.44048700402419938 6 1075 40 1204
188 -1.1388375468948586 0.1608520726675646 7.1469895353593405 181 101 38 0.64974351869229552 6 1080 40 1208
189 -1.1442202207561791 0.16166057589588431 7.1433429393176926 168 90 28 0.25995098832736313 6 1078 40 1209
190 -1.1442202207561791 0.16166057589588431 7.1433429393176926 168 90 28 0.25995098832736313 6 1079 40 1210
192 -1.3137190728700867 -0.030068578592907944 7.056119893515155 140 102 65 0.32781931072569531 6 1088 40 1214
194 -1.2769650602980391 -0.023350323196230514 7.0679285776954055 42 38 55 0.034600466882491916 6 1089 40 1216
195 -1.2758244825108898 -0.019657318215265847 7.0696438100678582 180 204 255 0.32010117200190458 6 1091 40 1217
196 -1.2354749995337946 -0.013913165069516053 7.0808253957837044 65 96 116 0.088255916974321752 6 1092 40 1218
197 -1.2766663427404694 -0.0082475120001700361 7.0694292278866619 219 246 255 0.62196994647751236 6 1093 40 1219
198 -1.2498758154132001 -0.0090400282049630382 7.0766599659728282 186 206 255 0.026477394814668233 6 1097 40 1220
199 -1.2699042025230536 -0.003271457758059159 7.0715786379152847 79 108 138 0.14651106265227812 6 1098 40 1222
200 -1.236866931317425 -0.0047500332063632363 7.0818259562530654 152 186 214 0.038639796175722302 6 1100 40 1223
201 -1.236866931317425 -0.0047500332063632363 7.0818259562530654 152 186 214 0.038639796175722302 6 1101 40 1224
202 -1.2440493515864477 -0.00021040080442384992 7.0808640442772637 64 93 119 0.18755974631543759 6 1102 40 1225
203 -1.2653613564909929 0.0029390415583782775 7.0744925748556389 66 87 106 0.40577770338123237 6 1033 40 1226
204 -1.2681199839045341 0.0094854427948950978 7.0743297735354247 186 208 185 0.21040652883442057 6 1103 40 1227
205 -1.2630117574342403 0.010752263384044419 7.0767951846783239 61 73 89 0.67590349783009884 6 1104 40 1228
206 -1.2628910574308112 0.019435629214847705 7.0764793980572573 58 71 88 0.60591507784454535 6 1106 40 1229
207 -1.2510726439399864 0.019491290119246635 7.0803670343221583 59 71 87 0.90724114712514048 6 1150 40 1230
208 -1.3332309616036329 0.034542760169623168 7.0515587318884991 138 100 63 0.17425962219602584 6 1107 40 1231
209 -1.3280500755182201 0.095417552999493935 7.0712384959407091 231 194 175 0.56962128620178265 6 1064 40 1238
210 -1.3360031007320785 0.09739520402343016 7.069526865230757 195 157 136 0.56281328409273945 6 1065 40 1240
211 -1.1791536974250678 0.086337336834092421 7.1238282637697097 127 78 43 0.033829906889058639 6 1119 40 1241
212 -1.1449720856629491 0.086104055656496217 7.1414906388053643 205 146 104 0.40980039404860125 6 1121 40 1243
213 -1.3325148197610144 0.11035057554366762 7.0739462766617205 178 137 115 1.1280549745712865 6 1170 40 1247
214 -1.3293821264112449 0.11646017897986444 7.0706490640151074 111 60 33 0.86021072657788777 6 1124 40 1251
215 -1.1917208618607125 0.15040554285363192 7.1183780461862254 194 94 8 3.3602289529278826 6 1129 40 1254
216 -1.1917208618607125 0.15040554285363192 7.1183780461862254 194 94 8 3.3602289529278826 6 1130 40 1255
217 -1.1533017262829126 0.1663479340912655 7.1340062503740826 197 135 84 0.47445788358626645 6 1082 40 1257
218 -1.1429909152894262 0.1672586621527411 7.1451271971639612 199 147 92 0.64701614175904965 6 1134 40 1258
219 -1.2258678476707745 -0.017788966361819682 7.0824095804999834 244 247 240 0.61977696839778507 6 1142 40 1265
220 -1.2258678476707745 -0.017788966361819682 7.0824095804999834 244 247 240 0.61977696839778507 6 1143 40 1266
221 -1.2741277309370325 0.01256758738695303 7.0720978717598308 94 118 144 0.57106077973982916 6 1147 40 1268
222 -1.2791026220496124 0.018219257337027762 7.0717303089380792 146 187 219 0.5408701100228982 6 1148 40 1269
223 -1.2688616411456743 0.023947205644895636 7.0754172753600661 155 202 237 0.57133743343469812 6 1152 40 1272
224 -1.2799549342737102 0.035259206188973727 7.0731912479332024 148 186 222 0.64549776132475623 6 1156 40 1276
225 -1.3114762653276033 0.078066949126324711 7.0611140938897687 201 70 8 0.88046977121999426 6 1161 40 1285
226 -1.1687849168839628 0.07974274300515001 7.1286582413826549 136 66 0 0.051096761656338696 6 1165 40 1288
227 -1.1636772047669786 0.1750901269932757 7.1275905526152821 127 68 8 1.731372846070943 6 1176 40 1297
228 -1.2269563051058641 -0.02544770144466163 7.0819066051102828 57 60 69 0.76387958936984102 6 1180 40 1300
229 -1.3107055383475479 0.05313007161459346 7.0585866345647252 122 86 54 1.3220448366229807 6 1185 40 1306
230 -1.3244578307260733 0.072263120129630307 7.0552252590203892 117 79 56 1.3600773951731311 6 1187 40 1309
231 -1.319267320655934 0.077439211651468443 7.0586592147792349 224 218 222 1.63625598410241 6 1188 40 1311
232 -1.319267320655934 0.077439211651468443 7.0586592147792349 224 218 222 1.63625598410241 6 1189 40 1312
233 -1.323682198092393 0.10147699514728367 7.0686376213084232 199 44 0 1.2504933874614572 6 1166 40 1315
234 -1.2372584028876008 -0.01984391077800227 7.0775290495613179 177 198 255 0.68223253824051788 6 1195 40 1320
235 -1.258228995964368 0.0078501090920603256 7.075907510421712 62 71 86 0.023999363543937436 6 1198 40 1321
236 -1.258228995964368 0.0078501090920603256 7.075907510421712 62 71 86 0.023999363543937436 6 1199 40 1322
237 -1.3236881480649483 0.047542742744580549 7.0539530644852029 132 90 48 0.063455256763347262 6 1183 40 1324
238 -1.2691584468676402 0.0010328814075315496 7.0714031992829574 105 129 153 0.29942690113897708 6 1214 40 1335
239 -1.1737796566991081 0.06729328345108837 7.1270453333886321 118 72 46 0.086670501022305502 6 1216 40 1338
240 -1.30121848657256 0.086842594396357026 7.0698845229111953 203 144 128 0.76817642508334227 6 1218 40 1339
241 -1.3255949607827817 0.085445151071303849 7.0611413145182622 229 214 211 1.5175299651995657 6 1229 40 1348
242 -1.2663997292834877 -0.013011854801296449 7.0728530329547308 182 203 248 0.39375433391712134 6 1234 40 1353
243 -1.2663997292834877 -0.013011854801296449 7.0728530329547308 182 203 248 0.39375433391712134 6 1235 40 1354
244 -1.2827986697522358 0.0042350636060562372 7.0698410966060976 58 54 52 0.094711653103662072 6 1236 40 1355
245 -1.1885747877289523 0.1617803224779146 7.1165938658099464 198 89 6 3.6400150570360568 6 1232 40 1357
